# .PCD v0.7 - Point Cloud Data file format
VERSION 0.7
FIELDS x y z
SIZE 4 4 4
TYPE F F F
COUNT 1 1 1
WIDTH 1269
HEIGHT 1
VIEWPOINT 0 0 0 1 0 0 0
POINTS 1269
DATA ascii
-286,8701656 -722,6474839 186,1763334
-269,4697945 -738,5239129 187,842772
-304,1106204 -716,8908561 189,5674072
-274,9592897 -756,9242138 187,4736018
-264,4679064 -783,1870827 197,7383637
-254,911894 -774,8644789 196,7172569
-262,2031759 -710,4335794 185,9580495
-256,5118952 -789,3373729 198,5773346
-291,2572579 -701,7769721 188,1641632
-240,9840967 -748,8209879 191,0619548
-274,5223034 -718,9992714 189,6296108
-261,8974008 -731,0544676 186,3087542
-265,3805855 -769,4999085 197,6361397
-293,038837 -711,5858977 188,7660189
-247,8099216 -747,8029918 183,8214706
-294,4236825 -716,1487107 188,694177
-245,2549399 -749,635768 183,8377534
-279,7100593 -758,4952176 188,6794933
-263,1486351 -806,3222196 203,7228939
-262,8685115 -728,9159247 186,2732024
-266,1098234 -699,6658304 185,7958868
-270,5149276 -717,768424 184,9217613
-279,8874488 -753,2885848 195,2166673
-281,5574217 -710,6798543 188,4245837
-274,3251372 -692,4103574 186,4879551
-267,5900993 -747,3220186 188,6099134
-257,3727195 -722,6754519 186,0971355
-265,8069706 -743,2261749 175,7702693
-267,320568 -789,7210249 198,7010184
-278,179253 -703,0620401 187,6842732
-294,4462303 -728,1019448 188,7452356
-291,3549708 -749,5178179 187,6309365
-287,9610328 -756,8515679 183,2148272
-254,7027004 -753,7654047 186,9802987
-278,165185 -750,5760408 191,5111439
-296,1787886 -708,1079165 188,4436386
-263,3337809 -762,4211525 188,1628296
-259,3838438 -793,9972879 201,0454175
-290,1624211 -717,4291887 187,7530272
-270,0542215 -773,3701388 198,0685474
-262,2449907 -728,6220379 186,1952676
-264,4924621 -702,153014 185,7959933
-263,8510344 -724,0460219 186,164957
-297,3900738 -725,9088635 188,8764288
-273,3841973 -692,7407349 186,3757226
-242,6061788 -760,6423249 193,8080922
-248,4133257 -746,8947124 183,9036571
-264,6062171 -747,5229597 176,4062797
-247,716452 -751,1146795 184,1541082
-300,3960464 -702,1607198 188,7504739
-275,5909045 -756,3163128 188,3194803
-264,1198526 -733,1318107 186,46899
-294,1964595 -700,4672168 188,3173866
-290,9149472 -692,5572488 188,1004344
-257,8735377 -719,6230271 185,5865127
-251,3541165 -780,1593821 197,8072859
-272,7856943 -755,728801 187,1814093
-266,9185275 -745,8205255 188,6365726
-277,7124864 -735,9746148 187,6817935
-297,07495 -721,9247517 188,7997921
-264,5838305 -752,1536992 184,8063688
-267,3567228 -795,1358 204,1787467
-289,0509135 -708,613684 188,6925499
-248,2857999 -762,4970426 184,6195748
-279,0270024 -705,1029028 186,4676746
-265,9055666 -768,0062299 197,9031131
-279,3963905 -696,5639521 187,0685019
-253,4029531 -761,8872376 184,6349462
-293,5077501 -699,5686981 188,3554543
-260,1106615 -721,7213277 186,535146
-275,1525682 -764,799162 187,9167709
-290,7069562 -698,0871018 187,8595675
-280,5761788 -740,8012944 187,9751689
-247,2406914 -772,1930568 196,8260174
-254,5586202 -734,1589487 184,4178076
-287,022583 -734,9509933 189,0578776
-260,5781223 -732,2872832 186,3798265
-273,7582068 -772,7737642 198,4809077
-289,1140038 -754,4102016 183,613207
-265,3531375 -787,3223289 198,7767332
-284,6325563 -727,9855957 189,1524196
-264,4207058 -776,0296565 198,5299435
-293,9814883 -738,5076198 189,1529888
-271,4888845 -728,4832296 187,5352562
-267,7637333 -747,9401881 189,8120388
-280,3965556 -752,0407505 187,7642704
-290,628706 -710,4260479 188,9196539
-265,5573362 -753,946736 179,9256642
-264,9583458 -744,1954963 178,7704466
-301,3665559 -714,4617531 188,9109742
-287,3529046 -706,2197445 188,7571711
-268,4226628 -744,8958928 188,1294836
-285,7506077 -740,5108997 192,0903633
-294,9287936 -748,2834891 189,3488766
-292,6458435 -757,141235 187,8019716
-277,373042 -733,545304 187,6633272
-263,374744 -792,3959124 198,9904465
-248,7115191 -771,9102249 196,2732062
-261,4902049 -716,2281511 186,229564
-278,9466548 -757,8102899 187,3608929
-273,0560827 -745,5058699 192,7451526
-264,7129572 -741,8653418 185,1210056
-272,6165128 -690,3354858 186,5883473
-260,7766653 -800,770781 207,926214
-299,3530858 -720,6565999 188,9461284
-300,407862 -713,5546612 188,791459
-262,016882 -733,7825975 186,8674335
-267,4767411 -767,7062394 197,9867366
-258,7278256 -742,5602495 184,6826257
-286,6130562 -720,6028969 188,3082713
-291,0393831 -698,0775142 187,8639494
-274,6017403 -747,2973647 192,9683091
-295,7450801 -718,5833235 188,7614426
-260,0310562 -717,4608143 185,8368412
-275,9544922 -693,5824241 186,5566199
-282,4003147 -743,5566591 190,7156632
-285,4341375 -706,0893952 185,4516172
-260,2870297 -697,0979367 185,6177116
-272,6165146 -710,846096 187,7173603
-266,4158059 -714,3121926 186,9170458
-272,1475666 -804,3712689 204,3156365
-293,1005805 -711,2704688 188,6225191
-291,0415011 -739,4673896 189,0196451
-280,253966 -735,6375037 187,8965829
-266,0402925 -733,7076081 186,5650623
-285,229073 -716,728588 175,7779692
-274,9054823 -708,3434389 187,7051236
-302,3798233 -707,9659334 188,8660167
-277,2430176 -727,0653255 184,7046069
-264,3963093 -737,4019527 188,3063612
-292,5808392 -743,7074782 187,821116
-266,4428636 -793,6550705 204,0448228
-280,2753168 -724,4028201 188,4755572
-286,6566708 -738,3567017 191,4946804
-276,6005336 -705,9732578 184,3585509
-263,9364155 -793,7027514 203,1715632
-296,1280468 -709,9617567 188,5749869
-253,2745355 -767,1551782 196,6914648
-245,9218676 -766,5949393 196,0110578
-292,1312956 -740,9781776 188,8226143
-239,666013 -753,5517339 192,2394576
-279,7302289 -754,795416 195,6115677
-267,8866365 -699,9429166 186,2695311
-290,6303106 -711,8120585 185,8473322
-253,9906262 -777,2369845 196,6767281
-275,9662534 -736,6124792 187,9351552
-262,9312856 -697,9260552 185,5337081
-256,4974916 -724,5277972 186,7179946
-273,8508187 -766,8001411 198,1605889
-285,3439117 -707,9874363 186,4692944
-274,5925715 -738,7746657 188,9102747
-259,5512169 -736,8196834 185,7777567
-268,4811708 -779,6257124 198,0707361
-265,4471895 -702,7343695 185,8671118
-273,7784084 -733,0176597 188,4122806
-262,8693936 -775,7480612 197,6067458
-275,4810723 -756,0149461 188,5839197
-281,5620223 -748,7268308 191,9758522
-262,5438011 -730,4373695 186,3053913
-291,6266876 -755,622682 188,6027881
-245,7822342 -761,8676527 188,7234618
-262,9253668 -697,6226364 185,5421431
-260,5233807 -777,2231902 197,8915111
-271,1772743 -697,6962034 186,2136214
-253,7824924 -733,2952623 185,5734869
-274,3707364 -767,9927578 198,4889442
-288,2324109 -705,9023273 189,0298519
-264,4709738 -766,8227084 197,4607826
-272,5081132 -748,8164183 192,5328388
-269,8001528 -692,8600114 186,2862128
-300,7408495 -709,2361597 188,771114
-270,3555706 -690,700033 186,5122821
-290,7928791 -722,6884492 189,4298888
-262,561474 -734,6874902 187,1501452
-273,4290239 -791,8624677 198,748806
-293,3280429 -743,1071496 189,1530979
-264,3665843 -710,3880794 186,2573169
-261,3272114 -729,240084 186,0623418
-292,2512945 -727,8247403 188,4215307
-256,2319005 -741,7038825 186,0993974
-294,7264116 -731,7752729 188,9000886
-290,7449564 -721,7142789 187,9890448
-272,3418128 -794,2956975 204,4823703
-253,3853072 -740,2050172 184,2271543
-292,9845862 -711,8992817 188,892709
-268,7994411 -749,1346642 190,4658156
-261,5501144 -757,3290378 186,8331521
-274,0083728 -772,4726804 198,653573
-281,1861138 -739,8842986 188,0813338
-283,4049579 -746,5995124 193,8229667
-286,9971527 -702,7680579 187,2208553
-240,9153462 -748,2380313 191,2231926
-258,2142543 -756,737082 186,2771712
-294,1393472 -727,1866181 188,6753818
-272,5503609 -795,1750767 204,7627004
-259,6852054 -697,429372 185,4844272
-280,9021637 -736,8454523 187,9386717
-282,9709655 -696,7578052 187,2359917
-240,4879574 -757,7493765 193,4784757
-275,0995065 -699,7080286 186,3062103
-282,3498432 -695,8504982 187,1224873
-263,1130293 -736,8191513 188,2626203
-269,2905747 -751,8470719 186,8715723
-287,3155631 -719,3525873 188,2106375
-298,4635642 -704,6668297 188,5666765
-258,7006106 -731,7376078 187,0283067
-277,8780447 -754,7959061 189,1237632
-297,2396093 -734,8075978 189,2884921
-258,6104626 -789,9941678 197,3000069
-270,1033235 -758,2439952 194,6096187
-287,7716786 -732,5571948 191,14418
-265,1645074 -704,5657917 185,7926604
-265,4641614 -798,0663723 204,1700751
-287,7613177 -731,6005694 189,6156557
-278,2359884 -709,3405989 190,8122096
-258,6965195 -761,2528699 185,1147919
-261,2632178 -754,6414048 184,2592529
-262,074089 -760,9204678 188,0447983
-269,2469767 -797,2246469 204,2718355
-258,5788295 -781,9823028 197,2530991
-259,7749674 -767,7273043 197,2016944
-255,9784438 -719,6617024 185,4567601
-290,1547445 -738,8643425 188,760092
-295,8318701 -708,4264672 188,4731127
-303,6323137 -703,6002133 188,3287844
-252,267756 -733,079512 187,8372525
-270,7360973 -715,410826 186,7677079
-250,5327437 -775,7525284 196,559656
-276,3836105 -799,0755161 204,8596885
-277,9335361 -729,6126289 188,6339838
-249,5567815 -741,768944 184,1596372
-287,4139048 -735,3014263 191,2377876
-266,2420948 -807,5680472 203,9543183
-272,0511043 -691,8705155 186,3963415
-301,0521938 -703,9918537 188,7972768
-261,9060407 -710,4383356 185,8874732
-264,4341668 -734,9422244 186,5291948
-261,7253899 -785,5576817 197,4329576
-272,73928 -773,6636743 198,603847
-267,7277016 -702,3596347 185,8873397
-255,9714899 -711,7893512 185,3091922
-263,403978 -694,5800882 185,9326778
-288,4912649 -755,9288833 182,74119
-272,8912634 -737,2707229 188,2463784
-288,9551102 -719,8396909 185,9480716
-251,7418236 -738,7234105 184,2783165
-263,7795149 -790,5484018 199,5509968
-273,0760964 -710,3433207 184,1635415
-258,1456618 -727,4840462 185,8696726
-266,6576566 -736,1206424 186,6888633
-258,681546 -730,2019929 186,2126146
-262,8596512 -732,2445404 186,3514635
-262,858127 -696,7191503 185,6919652
-292,6554348 -694,6470431 187,967757
-250,8970891 -775,4604419 196,4296266
-252,1336689 -773,9781645 196,486938
-298,0495779 -721,9082474 188,8690186
-277,509346 -752,9838078 189,9799177
-260,6649651 -727,4387587 186,0608925
-255,5316184 -757,3583715 184,8758403
-251,1645701 -744,4543871 184,2261014
-263,798765 -733,7416693 186,469572
-283,4004761 -699,7982483 187,040009
-249,7288895 -736,1285661 188,6796363
-263,4259772 -694,8855442 185,873593
-261,0260843 -777,5131269 198,2391043
-255,8201088 -779,9032107 196,9380353
-264,3344507 -804,560317 203,9156956
-266,3557531 -694,7813556 185,9037086
-274,3568936 -737,8800634 189,4683385
-264,4581891 -752,7578789 185,1379663
-263,380899 -778,7144726 197,9767822
-303,8208782 -721,5112528 189,4930779
-263,7934279 -718,2588822 185,3842459
-249,0618126 -744,478435 183,8317001
-294,533624 -747,6766647 189,4855689
-258,4573472 -723,8787193 186,6589895
-257,5592051 -737,4602684 185,922889
-262,860464 -773,0729267 197,5921838
-253,3780959 -739,602083 184,2331822
-284,7813644 -715,9747191 186,3365499
-286,1930749 -723,8864981 186,2188052
-245,5779591 -749,0330201 183,8138348
-247,1951829 -765,9981959 195,974447
-273,4828381 -775,7432344 199,1806737
-280,5698244 -733,8044149 187,8960709
-293,6144858 -704,1656086 188,1468374
-305,7654474 -711,6178711 189,6118464
-254,8620352 -757,3631061 184,93891
-259,8729218 -786,1445501 197,2813746
-249,3030191 -742,6698518 184,0037326
-283,2143512 -743,8436675 190,3479044
-278,567933 -751,7663662 189,7842651
-250,1665232 -748,6837241 184,4126185
-260,9997227 -729,5492553 186,0753804
-273,1466506 -736,3291849 186,8145911
-298,0015694 -728,3556309 189,0277619
-264,6435932 -804,8591153 203,9412153
-254,6581597 -762,1800451 184,7275621
-270,4442949 -775,1476686 198,7126086
-267,548793 -737,6251203 186,9302115
-280,9946363 -750,545698 191,7821175
-256,1646007 -705,7350996 185,5176054
-285,4057348 -733,4537263 188,9609451
-259,7691836 -753,403421 186,3844371
-299,7263029 -712,3407094 188,8033423
-294,8588669 -701,3715971 188,3426528
-279,7479765 -753,8672825 194,8081324
-257,5237561 -744,3877403 185,3154212
-285,8896478 -691,446236 187,3516435
-273,0450089 -782,6124135 198,7739255
-272,7350614 -735,1283046 187,0082418
-282,9982303 -707,7910279 187,3038686
-271,7220893 -718,1612871 187,6119079
-259,6786121 -697,7225051 185,5191461
-281,8539214 -748,4414073 194,3836644
-253,634491 -745,0281781 184,5226508
-262,5913832 -760,316052 188,364311
-274,9712022 -790,8865364 201,2288963
-264,4883335 -702,7630512 185,8175687
-271,2958839 -770,0885807 198,1387882
-262,3520088 -784,668902 197,4514744
-274,8119207 -777,5499926 199,1121203
-266,6620686 -774,8454734 198,5213904
-262,192854 -735,9269029 188,1131294
-253,4434655 -729,7093543 176,1546195
-262,2953029 -770,696769 197,3579116
-256,3402381 -783,4541765 197,2947563
-267,0722429 -781,3971145 198,400143
-281,3409449 -749,6540521 194,0604448
-300,5930373 -718,1810665 189,1615888
-272,5151159 -703,1923086 187,0412838
-267,5548577 -769,496774 197,8225592
-283,6626618 -735,5969316 188,414755
-264,8663865 -705,1800412 185,7309437
-275,8317571 -722,2821493 186,4644088
-268,1271771 -767,4070126 197,9652352
-254,5548569 -744,1158245 184,6348416
-301,3917865 -712,9186818 188,8447187
-299,8479869 -732,3212863 189,4289132
-257,402373 -733,5076158 184,5797034
-281,8600501 -689,438887 187,4204474
-265,3091862 -806,9406834 203,8974679
-266,8997272 -768,9007996 197,8424248
-285,7011438 -724,8543517 187,3849791
-266,2005683 -709,7448563 186,55826
-254,693302 -747,1322553 185,1773988
-285,2488206 -715,7250683 174,113336
-251,4710307 -777,5290947 196,6327758
-256,1759032 -705,4290705 185,4821313
-298,4427209 -709,288831 188,6459706
-269,0362778 -790,2526167 200,7994223
-279,3205149 -740,8157737 187,8318913
-282,1541501 -700,438962 186,8543545
-285,9019069 -696,6728479 187,3814722
-261,9751335 -777,5146718 198,2643683
-263,0821646 -796,1747642 206,8468774
-256,1466134 -785,8327777 197,0226936
-298,0971595 -714,5289205 188,7056968
-292,8709412 -747,3717022 187,9556713
-285,4592802 -720,9395456 188,686005
-258,6183201 -732,3505469 187,2552396
-264,5575332 -740,0424568 184,6613705
-284,8729895 -707,3236208 185,2249477
-272,4412489 -737,9225336 190,1489534
-281,4076959 -700,1683829 187,048836
-262,0399484 -796,6796179 207,8671976
-255,6291606 -783,7418879 197,4873768
-299,6742901 -720,9576066 188,9812357
-264,7106686 -786,4521171 197,9798007
-273,325109 -755,1206946 187,4531433
-286,9719734 -728,8584875 189,1147827
-253,7537553 -758,8772226 184,4997913
-286,2127118 -698,5086943 187,452123
-274,6615196 -693,9288027 186,4957276
-289,657163 -755,9367472 188,5558045
-264,0600108 -730,1114614 186,5685956
-266,7418788 -800,4465091 204,1926541
-281,4381347 -707,5587393 187,8573805
-276,5900698 -760,8181747 196,1771523
-260,4938523 -781,9911677 197,2518958
-275,1698386 -689,6461048 186,7868445
-271,47139 -694,6328038 186,2497171
-272,7456055 -692,4536846 186,3206088
-274,6494184 -768,5884741 198,6063198
-284,8640329 -706,4008452 185,2313349
-292,0520351 -735,7901517 188,9548333
-263,1352485 -730,7320969 186,4580841
-278,9444134 -731,6780149 187,0243212
-271,1505408 -696,4787461 186,2603721
-273,1792828 -757,2382847 187,0295816
-270,6639923 -740,9351673 188,1619194
-288,2603568 -752,9138672 189,449991
-255,3115375 -710,8966332 185,314953
-295,1491487 -714,8727337 187,8016276
-269,8105659 -747,0158877 190,3527926
-259,2755225 -762,7492169 186,1421139
-254,9088253 -707,8463576 184,617363
-288,6602025 -704,2998884 188,0188031
-253,2864561 -710,314924 184,6736377
-274,2481939 -690,5818231 186,638953
-267,5596372 -706,3056045 185,5572095
-306,2145731 -713,753376 189,3766036
-282,5813756 -724,3552992 189,2660918
-280,9933015 -695,5935432 187,1905591
-290,6266274 -722,0040616 187,4932686
-264,0383091 -713,7808951 187,1502913
-286,247724 -736,5263276 190,8849869
-268,2984895 -694,417942 185,9663353
-298,8399549 -747,9214127 185,0210078
-267,0777714 -705,4252159 185,9233389
-248,7766996 -771,3212393 196,0902462
-279,2925203 -756,0043741 195,8898918
-254,2975829 -774,272217 196,6496465
-283,3952954 -701,9941905 187,8635962
-247,74409 -752,0171066 184,1088768
-259,5507657 -805,4303558 203,197409
-293,9496959 -712,1519555 188,2187241
-283,7236055 -763,8692303 188,616618
-264,2309184 -708,5398771 185,7382501
-267,8732245 -729,7434881 186,8024599
-266,2337695 -786,998221 199,7635346
-276,8460367 -760,9041633 176,5189075
-290,4908628 -758,0643724 188,9508897
-259,4233751 -767,4298598 197,2767682
-269,6655972 -776,6452283 198,277797
-289,5596769 -711,5059537 185,2324562
-271,4125196 -742,8131293 192,7429791
-291,9212759 -747,888882 178,5363539
-295,8957083 -703,1839937 188,2868063
-265,3940745 -781,657813 199,3857762
-269,974886 -768,2979076 198,1869893
-265,997127 -775,1399107 198,585563
-280,9640652 -748,1175199 191,0553558
-270,336272 -739,1277058 188,1424687
-293,8933227 -716,7947999 189,1475844
-266,8939998 -782,2754375 198,8532825
-255,3325204 -789,9355034 198,3634529
-295,415049 -728,3938228 188,8237967
-251,1562877 -778,9882433 197,4739882
-295,2659929 -711,5148939 188,2733726
-272,5199465 -779,3364214 198,4371437
-248,8664824 -752,0094846 184,5386979
-251,3220867 -758,895114 184,124583
-302,0140206 -706,746981 188,9238796
-274,647318 -790,6182981 200,4518239
-279,3581826 -704,5286866 187,2557972
-280,0230526 -691,3318944 187,0852534
-249,9830245 -735,2345149 188,828187
-287,0353769 -704,3865754 188,703075
-264,3362841 -747,319865 185,3508841
-271,2730114 -784,1024754 198,4012812
-291,7957349 -759,5799568 189,0164201
-253,5644304 -730,6424985 187,7590391
-295,06757 -732,3810755 188,8889504
-258,2217014 -714,1565199 185,4134949
-269,7698114 -706,0367177 187,380506
-297,4077367 -714,2400933 188,7463497
-249,3671512 -775,4448067 197,1159621
-254,3676868 -712,1316146 185,2723181
-256,4539074 -775,45718 196,8559623
-275,2305279 -720,2182235 187,9084805
-279,1425234 -693,7980655 186,8466233
-290,830354 -711,5456445 186,918361
-255,351715 -747,4349871 185,9856123
-270,2680596 -747,9350477 192,4289732
-252,4605465 -735,1384011 185,6844178
-302,3940772 -710,1218855 188,8460742
-284,6047611 -693,6356585 187,2658226
-254,0777406 -719,3994468 185,3440478
-284,9376282 -695,1614335 187,2828064
-276,6993998 -805,3132648 204,9288695
-302,6707856 -711,9713161 188,9918411
-267,0958639 -754,2787061 194,7517736
-260,7559401 -794,0237456 200,7873171
-289,7231254 -725,1613202 189,621065
-264,7470953 -800,1417866 203,6118582
-276,4693993 -762,3138508 197,2689317
-302,2178714 -723,6860125 189,3248803
-290,887334 -711,3068635 188,3276278
-261,9526507 -790,3032873 197,731471
-257,4496625 -749,8214863 186,4399761
-302,2277838 -704,2920119 189,1889407
-287,5502756 -728,547726 189,307453
-265,5617632 -787,8812879 199,852604
-259,8355553 -774,5631404 197,1667014
-258,529418 -741,6760066 185,1626593
-260,7259057 -708,3294159 185,5384411
-278,0951044 -749,6704662 192,4427596
-294,2639678 -702,6103126 188,1804673
-275,6198305 -797,0104512 204,3577014
-253,8276526 -725,32215 181,0477109
-268,3182467 -796,0354932 204,1804907
-249,0668005 -768,0631175 196,0953266
-271,3057946 -770,3868375 198,1194367
-291,0816122 -694,9906498 187,7382404
-275,2235087 -729,3636346 188,8314641
-250,7894454 -748,3749428 184,4568111
-272,8201062 -717,5254869 187,3372346
-275,5526581 -708,6767979 188,5365537
-266,3118516 -754,2428744 176,3578833
-258,2277207 -713,8520836 185,3924802
-252,7715468 -718,2249477 185,3629997
-283,5966191 -727,982181 188,4752358
-280,510218 -730,7648844 187,9983353
-258,5092456 -715,0613678 185,5234989
-254,1192357 -786,6287244 198,9757453
-269,1551912 -692,8795179 186,2546878
-299,7590803 -707,7183236 188,6989046
-246,5429415 -748,1185101 183,7854665
-286,0257299 -738,9104855 188,3376178
-251,8312101 -775,7554108 196,483557
-285,0845497 -714,783695 187,1757718
-278,8233069 -757,3063062 197,022558
-292,1957939 -757,1426901 188,0727571
-270,5833387 -758,6722255 190,2579988
-249,7721038 -757,104007 183,9359502
-298,5564147 -732,3398264 189,3187293
-269,9173337 -713,5852894 186,3310361
-284,9016785 -714,403681 172,5086217
-287,3624213 -731,2668917 188,231061
-269,4068326 -769,4934905 198,0185366
-260,0625471 -762,7353126 187,4291455
-261,4316254 -757,3360528 186,3109485
-273,1046103 -709,6468533 182,4706443
-296,7526032 -726,5313245 188,8086897
-296,7164974 -727,7608264 188,9005545
-265,6546436 -772,7731595 197,8040475
-258,4745499 -752,2214331 186,3532013
-273,1317124 -794,5842025 204,8980589
-275,0936583 -801,721744 204,9051978
-274,5845288 -798,4711836 204,5456696
-288,5095621 -729,7757933 190,1715067
-250,2504788 -763,9901718 186,1974393
-279,0051228 -738,9964824 187,778352
-259,0698969 -794,2899842 201,0401009
-250,2595678 -743,8627052 184,0529024
-267,5356076 -727,3266332 186,7953635
-271,5012219 -776,3472885 198,5127866
-263,7415924 -738,5654181 185,8719553
-288,9803824 -708,0134107 188,8546263
-303,826276 -718,7402172 189,4622232
-275,6207838 -697,5767768 186,6229535
-291,6662839 -713,9994894 187,3246547
-272,0229088 -736,9638447 187,1776275
-267,4108281 -805,1869619 204,1869653
-276,6225396 -753,5923326 189,7508322
-258,7747392 -802,738202 203,479359
-273,731002 -698,2370874 186,4174872
-267,1586922 -723,1208786 187,6583457
-282,678668 -746,0116405 193,9577208
-257,0818638 -769,5206716 196,7747617
-303,1930919 -719,3687841 189,3801203
-265,030739 -728,2775376 186,5559009
-267,8171027 -739,7744142 188,7305089
-265,0979539 -733,418446 186,4721613
-289,5253622 -721,3407355 185,4117437
-270,8339061 -695,8750556 186,2202747
-267,235797 -753,3785608 194,3909375
-298,4000091 -719,134732 188,8143465
-295,7726126 -716,4240796 188,6715452
-274,2920351 -730,287212 188,7139736
-277,7879381 -759,6366392 187,0113153
-285,3656191 -761,7319444 188,6000719
-260,9729116 -730,4603921 186,1621762
-281,7521066 -711,1731907 185,596417
-271,4107175 -703,8538106 187,3427557
-296,980859 -716,4097386 188,9700087
-273,5792059 -690,3002608 186,6549662
-293,6042201 -695,2403773 188,1005396
-269,0648775 -750,6655011 193,8264168
-266,5970967 -792,520095 202,871467
-298,4686355 -700,9706723 188,5347513
-278,5975501 -723,4592936 186,9605037
-268,636447 -696,5424955 185,9760398
-291,5557972 -752,2730938 189,4958013
-265,1307277 -786,7614703 197,7376614
-257,785712 -795,4552884 201,0862849
-248,341894 -775,4305605 197,3324021
-261,2607851 -763,638795 188,5172671
-275,8772258 -750,896396 193,0736606
-262,1352606 -789,7276899 197,2702381
-273,7002276 -709,9303646 188,2624239
-262,244282 -728,3187751 186,1915269
-264,8001233 -697,2686056 185,7538714
-266,1734064 -781,3750515 199,033996
-273,0955571 -801,2560497 201,992632
-252,7760488 -778,1258056 196,5566572
-267,8790115 -752,7757637 194,3903312
-270,200467 -697,725988 186,1906815
-255,9336824 -709,3689227 185,3528494
-248,6697362 -763,4025215 185,2946241
-263,133411 -771,2884542 197,6834465
-263,8571171 -699,4285355 185,699375
-277,128294 -701,8776324 187,816258
-268,471775 -742,483336 188,7611242
-293,9291898 -745,5415912 189,323745
-280,0222248 -754,790879 195,6927476
-273,581192 -711,7872462 188,5981219
-245,1128403 -757,1127633 184,4394504
-296,6853903 -732,6656634 189,0117671
-245,8710714 -768,9569238 196,2073108
-272,0659532 -806,4303703 204,5401914
-256,1729189 -751,6423291 186,4526421
-268,6257893 -694,4066846 185,9673305
-259,3849183 -700,1650154 185,4689194
-263,5905584 -707,3430402 185,6905228
-285,2658022 -695,1517444 187,293532
-273,3474233 -755,422559 187,4033554
-278,241891 -729,6090427 188,6828713
-275,8921601 -746,9848878 193,0010293
-265,028903 -717,0909233 187,1729323
-262,5276524 -751,361517 185,8473301
-293,4577182 -749,5125436 188,9165592
-251,7992976 -744,1444104 184,2441634
-261,6383544 -728,9324033 186,0911558
-285,0610073 -715,5247931 183,3120946
-274,5922856 -798,1754747 204,5237732
-304,3771455 -724,5848086 189,7687551
-271,1526248 -741,5780481 190,96266
-271,982237 -711,2626876 183,631242
-289,6811737 -709,9836421 185,703592
-262,1740685 -748,8922914 187,546116
-275,8163585 -762,6626256 187,8620555
-252,4184924 -741,4250806 184,2518692
-268,1021624 -720,914878 186,0879948
-258,4460306 -754,9312743 186,478797
-274,2406747 -756,0223381 187,6243533
-291,1235513 -709,5159439 189,311949
-290,6447591 -701,4809598 188,0348471
-258,978126 -733,8497628 187,1928411
-278,1547225 -747,5606851 193,0541337
-272,5300907 -705,6316395 187,0430162
-273,0517269 -716,0094739 187,5538069
-276,6236376 -695,0870675 186,5535042
-273,9524798 -705,5310029 185,9767628
-268,8733799 -794,2607978 204,3555448
-273,8149612 -787,9690693 199,3201669
-276,9955022 -759,6189469 195,9680587
-253,6945665 -734,1860996 184,9829767
-258,3254546 -731,7493902 187,1639236
-268,1824191 -779,3279969 198,0101553
-257,4832534 -743,7846237 185,4045684
-239,9872333 -756,8758561 193,090717
-266,6979991 -775,7395772 198,4462915
-252,1418543 -712,4676992 185,2459946
-264,1163485 -779,2984981 198,5487064
-268,4015413 -713,3082266 186,0193796
-274,0266208 -696,3960983 186,472637
-268,32766 -741,2859414 189,1064198
-263,2804617 -776,0345033 198,1805268
-273,0830201 -781,4223376 198,66598
-285,6418201 -704,7402482 188,8551451
-277,5367117 -695,6804416 186,7478968
-255,8808898 -763,9795424 186,5857548
-257,985743 -782,8719447 197,1583377
-267,3639387 -791,7731857 199,4208321
-300,4127564 -714,4779144 188,7866483
-261,1294161 -781,6960913 197,2602381
-247,5341225 -753,5190833 183,8466088
-253,9147544 -762,7835921 184,9977771
-292,630356 -705,1142119 188,1120837
-285,0732949 -720,2595848 186,4817313
-281,8968401 -754,7656911 185,0044377
-288,2105187 -702,1337755 187,4922648
-255,8021133 -724,5195535 186,0114505
-246,82833 -749,3183156 183,9069779
-247,4772647 -760,4301804 184,1340143
-282,9883725 -726,6393581 184,4081152
-266,9417506 -769,4980617 197,7483403
-281,9472133 -731,0367626 187,724729
-278,7637372 -696,5789069 186,9965043
-261,6497109 -726,8137965 186,0244837
-303,0752971 -727,3533241 189,6894076
-269,5275527 -784,9740136 198,7384852
-262,2978013 -712,2403639 185,7504376
-272,5144015 -777,8452228 198,4286965
-264,314924 -746,9068969 174,6304833
-294,0949588 -733,6187535 188,8345845
-260,1260208 -801,2413789 200,8384555
-276,6013234 -796,9559416 206,5925527
-267,6803967 -718,7736923 185,473477
-273,7676578 -776,0404792 199,2781528
-288,835837 -701,8156278 187,5879897
-280,7273752 -710,3616301 188,0271886
-245,6015343 -749,6318162 183,7672771
-266,5421284 -790,6212195 198,2658381
-289,5017665 -722,2619137 185,4736374
-301,3086109 -721,2364788 189,0853819
-263,6851661 -779,0126556 198,0215831
-300,8791563 -728,6240611 189,3470768
-274,6819461 -788,7989922 201,12644
-292,0354697 -736,097206 188,9956405
-286,535372 -699,1154212 187,4833096
-295,2344012 -702,2786324 188,2579485
-277,4008621 -731,1101141 187,5619583
-284,2182303 -704,9297993 185,9518179
-286,1754678 -718,1757212 188,5423729
-274,1607612 -787,6138338 200,8125555
-256,5034136 -732,6125648 184,3760227
-273,7422852 -748,5075707 192,7012395
-291,0250395 -697,4648053 187,8918699
-271,5998124 -741,2247391 188,2669593
-282,7605917 -746,5464108 187,5541097
-255,1965261 -727,9021302 187,6462246
-257,6562717 -756,4405723 186,0443036
-291,8907383 -717,7623042 189,1597703
-263,7617602 -731,3253838 186,5228978
-263,0054772 -788,5381575 197,4734179
-262,0375831 -785,2621263 197,4470566
-276,9490262 -699,9755923 186,628593
-264,6652348 -746,9416992 178,7347382
-254,5313643 -745,3237114 184,7223418
-287,9815716 -720,5033825 186,6639049
-300,0894137 -703,396059 188,6857828
-254,419508 -719,3893107 185,2978235
-276,0480907 -751,8064424 192,6768319
-255,9679759 -781,9447513 198,2101631
-279,9298187 -735,3372352 187,8780541
-288,1283258 -728,5433231 189,5049503
-254,6313665 -765,3805886 195,6152531
-278,0722234 -740,2210707 187,661085
-297,7903747 -698,8326834 188,5325737
-267,681129 -765,6434732 195,0674942
-267,4542648 -746,4131969 188,1245589
-261,0030339 -776,6388677 197,4818874
-275,2789703 -745,4809303 192,8811941
-280,0673352 -757,2008714 186,2459645
-272,6317585 -775,1496834 198,8828389
-254,8360042 -742,9086506 184,7207908
-290,9374398 -715,5608077 187,4864628
-284,6853207 -763,2596506 188,6627623
-259,691161 -709,8860274 185,7173183
-265,977453 -792,0470524 199,6778333
-266,0938989 -706,6733903 185,9506825
-276,6713798 -798,7787276 204,9366214
-261,6737385 -708,3080066 185,6144196
-268,2451855 -808,9889519 205,3040623
-265,4964207 -780,1809553 199,1062373
-268,4496276 -726,4037039 186,9424159
-263,9780667 -764,6544265 185,7053854
-263,1168042 -801,6724392 206,097868
-295,5366136 -722,8667806 188,5031111
-258,8971666 -770,1089801 197,0386218
-269,4915842 -794,5607291 204,4129973
-265,4042706 -707,30764 186,0517225
-260,1282609 -799,6663 206,3760169
-310,2789547 -713,3870134 189,3830388
-279,195097 -706,0390722 186,8730002
-304,5448752 -711,9461524 189,3306461
-261,0000606 -760,9352012 185,8355299
-270,8186466 -705,997185 187,2190328
-277,2865061 -704,7783114 185,0784491
-295,0328328 -712,4313974 188,0487556
-247,5119639 -747,2042342 183,7472328
-290,7112893 -707,3487772 188,7045496
-292,6358594 -738,230172 189,1666403
-279,0080547 -738,3883709 187,7631789
-253,3993539 -772,7924678 196,4785075
-257,2525929 -711,1499007 185,3384551
-291,6935094 -737,9348645 189,0361098
-271,4232529 -775,746719 198,6925578
-269,2181822 -798,4670658 203,6339767
-248,4791445 -755,012448 183,9259352
-251,5218341 -775,4603819 196,4554328
-273,0931598 -723,2636908 186,7341695
-265,3490377 -696,3523099 186,0004479
-295,1968697 -697,0522847 188,3098128
-271,0259914 -729,9711052 186,2857533
-258,1302448 -709,3147149 185,543282
-267,6375319 -704,2024398 186,1384078
-285,774549 -708,3544098 187,805818
-252,0793508 -782,5082825 198,4425792
-269,8155262 -775,1468765 198,6752419
-275,7811936 -792,0605093 201,6329186
-265,3449157 -727,0603264 186,5620149
-240,6627473 -758,9400484 193,8819192
-281,635263 -702,9822062 188,1167431
-269,6099793 -805,8102271 204,282924
-293,8257891 -713,0889372 188,5098517
-253,068914 -770,716902 196,4717698
-256,4093468 -736,2466872 184,6951196
-263,3079746 -792,8803851 201,5315221
-294,2190826 -758,6608604 188,0242399
-283,6859262 -763,253637 188,6915149
-278,664449 -737,4829442 187,7849595
-302,1876517 -716,9237528 189,3485266
-280,8276486 -741,4085274 188,1681927
-272,2936489 -710,3003207 182,8536809
-265,3858558 -793,6524723 203,5160633
-265,1155805 -744,614076 186,6372409
-277,6974367 -700,8583809 186,4299574
-285,140284 -716,1214633 175,9820405
-288,6039787 -740,4127317 189,2944097
-282,6755493 -694,9192122 187,1261782
-284,0969637 -733,1455008 188,1389597
-274,4741659 -755,4157841 187,8453417
-268,7581076 -768,8972549 198,0201718
-277,1005352 -738,1087745 187,6013948
-271,8680295 -744,3085371 192,4468782
-260,3793851 -767,1303394 197,2795702
-266,4770982 -755,1797319 192,2839892
-255,7723492 -730,8420475 185,3842753
-253,9594111 -738,3893398 184,374985
-290,2552782 -716,8410884 188,3067153
-271,3383263 -704,1717231 187,5249569
-300,2298228 -717,2684861 189,2165604
-265,4548524 -700,2965619 185,8077075
-259,0249925 -708,6934415 185,7354076
-280,0122281 -691,0262781 187,1055984
-279,5154116 -752,660276 188,3135575
-267,7699392 -721,5627809 186,9241094
-268,2152701 -733,9792756 186,8344564
-279,946369 -724,7100931 188,4721232
-268,8337749 -748,2386538 191,1732552
-270,9346772 -809,0777415 204,981627
-243,5972265 -765,4537491 194,6039248
-296,4542125 -719,1741528 188,6717693
-266,7524938 -792,2713607 201,7060764
-288,1602161 -692,9164267 187,5163827
-267,5689684 -752,7770148 194,3585927
-288,4776402 -692,9088426 187,5545274
-258,8376701 -707,1615633 185,3541813
-295,5686125 -702,8852467 188,2651914
-273,4817509 -731,784773 187,5217452
-249,6872017 -761,610013 184,2578508
-277,6615235 -756,6060559 188,0724834
-272,4508819 -741,8907471 192,5687686
-262,0089502 -770,4003287 197,2645429
-283,0719678 -715,853678 169,6286888
-254,0758097 -715,1653991 185,2594621
-250,3298944 -765,9852899 196,0630768
-271,5913447 -748,8235921 192,3851426
-241,6911823 -746,7452155 190,7948051
-276,6321263 -703,3996572 187,4546135
-246,6367053 -754,7291575 183,7012423
-263,8009019 -711,9109328 186,0652411
-276,2429931 -701,5347808 186,7605047
-252,9453748 -765,6801212 195,8656625
-284,4145416 -741,7408729 192,1424339
-285,1704729 -721,8561599 188,5961045
-281,553778 -722,4233465 184,6234238
-294,6360101 -749,2007645 189,2651057
-265,1294549 -743,2130908 174,1532936
-246,5830691 -753,528733 183,8174233
-288,2770682 -733,4508682 190,7507373
-264,1298326 -740,0188636 180,7702908
-291,5220383 -727,8425252 188,5669743
-291,5875231 -713,9756846 186,736924
-262,3018562 -772,4809188 197,3701545
-271,6096574 -780,5281962 198,3131226
-255,9704838 -742,6102938 185,9583154
-276,5570116 -748,1805142 192,9813459
-271,5690515 -727,2882478 188,1260011
-296,4131282 -722,8574158 188,7896967
-265,9554385 -728,8680523 186,6925311
-273,5813729 -701,8781735 186,0242868
-267,1019815 -705,7258238 185,8694667
-250,4996364 -766,5729056 196,460893
-252,4899004 -711,2674737 185,0880106
-270,5554169 -742,8052884 191,6524931
-302,6299442 -713,5167618 189,092347
-274,3508749 -791,2722175 198,8509184
-285,1488568 -733,1470497 188,78068
-273,2694607 -787,3762494 199,0744897
-296,887508 -700,0783286 188,3015013
-252,2522625 -748,6624022 184,8481844
-262,6664864 -784,3741094 197,4604411
-293,6195962 -740,0664765 189,2193503
-267,9275545 -700,8501146 186,1836642
-253,2936475 -724,5622945 184,9655544
-267,6374388 -787,5867638 200,2551488
-261,7992032 -797,2328094 208,4725266
-297,7138356 -720,9931436 188,8633894
-260,4959527 -759,7322129 186,2755025
-275,1969605 -743,9778856 193,0616954
-292,6063047 -721,1086813 189,0763025
-253,934649 -742,3118527 184,5234816
-277,2093678 -755,7046933 189,1558415
-259,9655302 -795,5130081 200,4034154
-269,8799444 -696,2072285 186,1438
-277,3054425 -725,0286987 189,273921
-263,8824567 -697,5940892 185,600829
-262,9378173 -708,2745807 185,7100053
-266,1631388 -741,2863643 187,2132533
-268,44473 -771,5792902 198,0400909
-256,5805415 -755,5455617 185,4737683
-268,973412 -773,9586312 198,3564611
-261,684783 -768,6153478 197,2432509
-252,1105311 -742,3332833 184,2338187
-272,6702259 -708,0469988 186,7339738
-257,9823946 -774,2679074 197,0029064
-291,2500762 -744,8559628 181,6302759
-297,4764187 -705,9240561 188,5281976
-266,4921146 -786,6980485 199,9134254
-258,5075414 -803,919668 203,3717624
-254,3462121 -758,571325 184,6294329
-286,8955741 -751,3776006 190,3108198
-257,0741765 -732,0458203 186,2228689
-270,7571112 -715,3705252 185,9050885
-274,6941167 -748,7998403 192,7659905
-272,2529589 -752,1193923 188,4276452
-288,1047824 -751,9931819 189,8064036
-301,2549195 -723,7008193 189,2222635
-259,6111336 -760,9459031 185,2510747
-284,2407021 -759,6091643 187,3338986
-297,1696776 -704,3884057 188,4516263
-292,1576952 -756,2287836 188,1516276
-259,9573607 -719,9264597 186,8949632
-240,4499407 -758,0576645 193,5806621
-253,7207137 -718,8064674 185,4192734
-257,5084795 -761,8632698 184,8581906
-271,7439059 -717,5516191 187,5512659
-270,9779253 -770,0882223 198,1275765
-277,0944311 -739,9304214 187,63892
-276,8254538 -743,9564048 193,0641067
-255,3019912 -726,0548228 186,5001223
-260,7041926 -704,6874267 185,5255312
-252,7596053 -739,6104348 184,1634302
-270,4247301 -733,3409656 187,0139593
-249,759074 -759,8081383 184,0288769
-263,5257518 -696,6955641 185,6580773
-256,2518207 -761,2682567 184,7574009
-265,2477555 -740,7979041 174,6228906
-291,7018112 -713,4561916 188,7797652
-273,6678202 -797,5739918 204,4238673
-296,5485466 -703,16755 188,3283109
-284,1363268 -714,0780104 184,6978884
-292,7487776 -755,6176784 188,3205865
-288,9260337 -754,0961562 181,698176
-284,9239097 -740,5091588 191,7097588
-260,3832779 -805,396889 203,4911794
-265,6870148 -750,3509867 187,7319995
-276,1900006 -703,9878732 187,7140967
-263,2030811 -776,6244159 198,3812716
-268,5592714 -809,3639977 205,3161879
-290,7778173 -724,2184096 189,4798347
-259,4422876 -800,7763562 201,7833882
-293,4246694 -732,0992864 188,8283506
-292,793252 -731,495405 188,7418801
-264,8639166 -746,3145696 177,3885855
-279,1397644 -691,0374694 186,8170437
-274,5220791 -757,8525505 186,9469354
-249,3213119 -777,8003554 197,2918142
-269,5707305 -715,8929663 183,176934
-274,7963979 -773,9704915 199,0988176
-248,8059221 -757,7120022 183,9569085
-257,2490588 -713,5766998 185,3991539
-290,8383182 -738,8545934 188,7159177
-278,9894982 -702,4529108 188,1164936
-273,1864438 -710,2852977 183,0832366
-266,3318548 -751,2455951 186,9528064
-246,8522764 -739,7944561 189,6086821
-250,6040728 -742,9526778 183,9745402
-270,1556484 -788,2515005 198,8270616
-271,1534609 -695,5599506 186,2360414
-277,6027271 -800,5694839 205,0400523
-273,9409324 -799,6468233 204,5643669
-285,387793 -739,5713648 190,6116836
-251,5599878 -764,5688909 192,7979317
-285,1950679 -724,8794396 187,7948574
-274,8889158 -742,1698488 192,9885785
-250,9549377 -750,1831154 184,9179553
-270,5185658 -694,0485229 186,1564051
-256,1282126 -735,3426222 184,566845
-268,3186023 -787,0010612 200,1533874
-261,9547553 -758,5240734 189,9175082
-264,1282933 -718,5548538 185,371966
-291,1397652 -743,6758411 184,9770671
-275,0948708 -729,6790644 189,1466967
-291,4500443 -715,6020513 188,6155125
-265,4404582 -784,6563904 198,5193493
-255,2010207 -724,5300124 185,8972693
-296,1107413 -726,8478036 188,749047
-272,8928426 -790,9733997 198,4730096
-294,3300565 -717,6954377 188,9216294
-292,3348997 -737,9272177 189,0905741
-307,1626829 -722,6782983 189,5678283
-269,2935657 -703,847423 186,0944487
-292,9584336 -704,182657 188,1165374
-269,4723712 -708,4319814 186,5334563
-281,3593959 -690,9697354 187,0499022
-281,2218221 -751,7263951 187,3576307
-293,9893496 -740,9702388 189,1649009
-272,9377533 -796,0748818 204,6150467
-288,8294574 -739,1867695 188,757164
-256,2528642 -749,2306588 186,1889089
-265,2440612 -741,5776529 186,2454389
-281,3217292 -701,7630467 188,062046
-272,7504636 -693,6776397 186,3278875
-276,7401447 -736,5962944 187,6559519
-273,2113825 -711,8004916 188,6981906
-255,9704613 -722,3866418 185,5399857
-258,9421487 -772,7837313 196,9719085
-276,2693599 -729,6445021 188,6857658
-297,8996078 -697,015206 189,0375488
-267,4285983 -776,6396214 198,2396933
-293,9986312 -721,9729073 188,1988815
-277,5569299 -694,7569615 186,6856567
-257,1953788 -740,4833848 186,0828005
-276,3652149 -699,3694513 186,4339909
-272,6653143 -805,548143 204,6268128
-290,1791913 -712,1122698 185,3525667
-260,4204652 -778,9975946 198,1799712
-280,2539679 -735,9415036 187,9014443
-282,7138817 -737,4347947 188,3389195
-284,1989189 -759,9118182 187,44082
-265,1405231 -743,4023309 186,549655
-256,8434345 -740,7918097 186,164932
-258,6631094 -785,5488565 197,1043112
-280,6264829 -710,1418785 189,837077
-290,3764363 -704,8586826 187,9109885
-276,5441468 -741,185497 189,7657996
-253,7193087 -724,713824 181,3242579
-261,5287978 -790,8829201 198,0009924
-287,0947651 -720,26541 187,9581318
-266,447958 -703,6142691 185,833376
-266,464765 -807,5266026 204,1894275
-289,1891635 -770,5296108 199,6405104
-298,6779608 -725,2754855 188,9899562
-300,6174338 -722,1736307 189,1345068
-257,6555105 -765,6737276 196,0432506
-289,0112042 -718,6383569 186,580051
-304,8845308 -706,7064226 189,2803119
-286,3894844 -718,7899175 188,8207343
-289,0345111 -724,2301588 188,8946212
-273,3606316 -739,72563 190,3257996
-270,8330708 -696,7933555 186,2375286
-262,6679305 -734,3760736 186,8748529
-257,1122803 -744,9972342 185,5536862
-273,9224159 -710,903112 189,3483609
-269,7421302 -748,8393432 192,1398544
-257,9827039 -725,9889186 186,2579443
-269,6498925 -792,5990618 201,6822587
-277,4402545 -795,3469728 203,8403941
-261,3047623 -728,0317116 186,0962997
-300,2374776 -730,1663309 189,2918599
-260,1257026 -768,3225835 197,1333003
-299,3591403 -720,9626378 188,9347672
-270,9956144 -778,7383445 198,209303
-266,5215719 -753,6501403 185,6888548
-265,4527286 -702,4286826 185,8466432
-282,4935186 -740,5087255 189,6855042
-268,0366195 -792,2850471 201,6989858
-283,1328416 -712,9862685 187,0621966
-265,2393641 -801,0259869 203,9874844
-284,8438058 -759,6102385 187,4717206
-253,3446963 -743,8257084 184,4105264
-288,726834 -755,0075386 182,1784462
-270,1040768 -726,9989993 187,7015936
-256,7933297 -729,9614731 186,9104703
-272,6070911 -789,1853818 198,35943
-298,1452036 -707,4454868 188,546251
-254,1763278 -765,6742277 195,9739546
-260,4647726 -772,483807 197,1566846
-250,8944839 -763,9804227 187,0268691
-291,8315763 -733,9533441 188,6789437
-300,3494212 -715,4086174 188,9354417
-271,7097482 -723,2985142 186,9180578
-296,2817305 -747,3762703 187,7749187
-288,8432993 -702,7360374 187,5802431
-268,9669954 -785,8180165 200,1218769
-276,4157541 -737,2077852 187,6548872
-294,9589577 -737,2829121 189,1795651
-263,2103472 -702,7958731 185,7415907
-275,4141816 -800,2454284 204,8876155
-260,0713093 -704,0954773 185,4660058
-299,1144094 -701,8798314 188,6017321
-276,6404101 -796,0748651 205,7299942
-301,4025808 -713,8414 188,8263294
-273,1736348 -775,1460729 199,1361427
-266,9255101 -809,3577414 205,4019387
-273,6450613 -759,7367475 181,9167908
-293,7809466 -730,2557987 188,7595611
-255,34114 -718,7697699 185,4165488
-276,1964255 -703,4326244 187,6936135
-287,5056896 -697,8587138 187,5378538
-283,4814456 -727,6115159 186,3944374
-267,134006 -754,8686439 185,7985199
-270,1015069 -786,7341048 199,7119422
-265,580612 -719,2129601 187,4663455
-272,6168444 -714,2054432 187,7847661
-266,7575333 -759,3959229 185,2234109
-304,7951554 -711,022485 189,5174296
-264,0169227 -804,5584171 203,9158245
-264,0629771 -715,2924323 187,1104176
-252,0920469 -739,0190983 184,2106616
-244,9306345 -768,7429207 195,3112271
-240,9293206 -751,480723 190,4297489
-269,8238222 -795,1554709 204,3972741
-287,4506147 -752,3153517 189,7869088
-262,6281531 -777,8148423 198,2359806
-271,3640817 -739,0957731 187,2226729
-270,2851185 -804,3457635 204,1797511
-264,5999755 -782,2819842 198,1864778
-276,5004419 -725,2489569 184,8834144
-268,001678 -695,6452701 185,9085439
-284,522466 -718,5246951 188,5439966
-273,4794157 -795,4793294 204,8455363
-286,9743531 -739,2498278 190,7641846
-261,3502764 -801,6582481 208,0779701
-301,9335018 -718,7682985 189,1769011
-277,0315919 -709,3577854 190,5456332
-272,9332216 -718,4212141 187,0716626
-297,2178424 -750,4081416 188,7132784
-276,7285286 -709,3627427 190,4838642
-267,8862012 -789,660641 200,4667575
-277,5882608 -697,8187108 186,6565961
-266,724373 -807,8176927 204,335126
-277,1303922 -744,2556387 193,1172363
-290,0762109 -751,6675872 188,3063929
-267,243816 -771,2844728 197,8240866
-292,5992257 -745,8454498 187,7978915
-254,3781017 -722,416342 185,4669236
-259,0571188 -759,7446698 184,9912732
-270,6291778 -763,0165758 186,9851546
-270,2307898 -728,1752339 186,6034537
-265,3096899 -743,5805828 178,6976701
-256,2857366 -744,712195 186,015109
-274,4876101 -773,6621052 199,0611475
-265,8777943 -724,2703006 185,1706163
-274,8512275 -703,4685391 187,7638347
-289,1750184 -727,9338675 190,1482041
-273,6312538 -690,9034078 186,5412467
-255,3551676 -719,6738761 185,393607
-294,5603993 -696,1442591 188,2253029
-295,0769541 -732,9925744 188,873019
-281,1935833 -748,7249442 191,2986235
-269,2491894 -796,0432897 204,2496193
-260,379063 -700,1332731 185,4297628
-264,0423304 -749,1738547 188,5960838
-264,8715805 -745,217744 186,4399971
-270,5770401 -792,6368893 200,9882174
-284,8554694 -751,1155466 190,4415561
-302,064274 -710,746159 188,8335191
-254,9959807 -711,2077646 185,3006465
-268,7936864 -773,3694876 198,0002373
-264,0855079 -776,6226774 198,5776637
-298,6710623 -725,5834885 189,0077311
-270,2200988 -698,9444126 186,1620875
-250,32059 -771,613609 196,2041206
-281,3239113 -702,988992 188,070219
-258,8351588 -713,2344503 185,4876652
-268,1490574 -772,7725774 197,9935208
-274,3075889 -802,3218472 204,493702
-259,5848295 -732,9340589 187,2749729
-276,7706993 -763,2188188 197,3374082
-269,7961598 -731,8337368 186,9292871
-250,8499652 -745,9643509 184,2414125
-291,6342983 -714,2763662 186,6320147
-278,7358387 -703,9258817 187,153852
-293,6899054 -715,253685 188,8372098
-258,4166444 -745,5423521 184,7447634
-300,7327254 -714,1642725 188,821336
-288,6357569 -703,3397991 187,2931169
-281,7912835 -700,7614932 186,9326508
-283,738814 -739,2655429 189,0678916
-263,2645475 -708,2635164 185,7066513
-297,4918677 -759,8975025 188,1780601
-306,5106518 -712,8258693 189,4648705
-260,0687361 -704,7043278 185,4854172
-261,5454629 -805,9573397 203,7824128
-283,7806871 -713,7448419 183,9586236
-256,1405554 -775,4565771 196,8431602
-269,236309 -796,928166 204,2929145
-284,3494975 -700,6968537 187,1632897
-252,0552911 -766,8633697 196,5507458
-259,054255 -708,383738 185,6530995
-263,9677981 -752,45649 184,7219693
-257,1164287 -781,9632006 197,7191912
-282,620793 -711,2668193 188,2611737
-291,7044812 -745,182759 183,6813154
-264,3622476 -746,6674892 181,1526845
-249,594838 -766,2810156 196,3326763
-254,5303944 -757,3661596 184,9625751
-296,4473741 -711,8014493 188,6276618
-259,5522658 -765,165151 194,4355511
-289,9719646 -733,3831086 189,1280342
-279,2909866 -733,2136959 187,7939072
-277,3756131 -702,1884443 188,0202826
-290,4339025 -751,6637658 188,246858
-262,2686459 -700,0830752 185,599632
-250,5520112 -744,159894 184,1379733
-264,9294737 -722,1615406 185,0568971
-272,711813 -803,577067 202,9526804
-275,7440376 -767,4210396 198,2916028
-284,9824933 -730,675739 187,5818647
-265,0136026 -759,7104533 186,3390747
-263,1375982 -791,4317414 199,5737946
-267,8311473 -724,9232691 187,6381052
-287,5438432 -760,8096962 188,9045728
-267,0479393 -786,99223 200,1232485
-291,5951686 -719,5326436 187,5420633
-299,7515494 -704,6383533 188,6961728
-270,5313979 -746,6681148 186,9652597
-271,0255293 -719,0909048 187,7241415
-257,0326014 -751,3278382 185,8882919
-259,5695673 -785,847156 197,2360173
-263,9547166 -779,6047492 198,1581824
-259,8746412 -785,5511086 197,2671739
-261,2515325 -731,972069 186,3156471
-291,7614795 -747,2777692 178,90256
-276,3670206 -756,9154071 188,030768
-254,6622559 -758,5695454 184,6449581
-289,9069457 -691,6737191 188,100408
-263,6258305 -774,2536221 198,0977345
-267,1917163 -768,6006569 197,9114419
-270,1163765 -732,4342253 186,9548909
-257,1869342 -709,9434714 185,4745315
-264,6385921 -803,6714003 203,9423559
-258,2150291 -802,1592594 203,2841013
-263,8573381 -702,1699673 185,7498552
-294,9001879 -747,0487395 189,3952868
-266,207511 -738,892322 188,6784122
-255,4407684 -740,7893747 184,7827893
-265,9548304 -779,89468 198,7592002
-258,8764139 -776,6411474 197,2061145
-300,8759368 -729,2380577 189,358531
-254,2032933 -766,8542193 196,7526162
-266,6280849 -732,4897371 186,7029946
-261,7521048 -756,735627 185,4802211
-266,6837326 -748,8505418 189,2867459
-296,7565957 -721,930213 188,7621536
-266,4532433 -798,9703668 204,1036169
-275,9217235 -748,4882336 192,9434325
-303,7985404 -715,6648515 189,5054371
-252,9600718 -748,0505414 184,6677211
-255,1600142 -707,8481271 184,8069442
-294,409551 -734,5319598 188,8865942
-254,4156408 -759,7754497 184,4755793
-265,99713 -763,6404985 185,5632557
-266,7452881 -754,8809901 194,8287348
-276,5900598 -733,5659284 187,9672357
-297,3786023 -723,4558023 188,8828779
-280,7191954 -749,6334414 190,8764366
-262,9566841 -790,5234445 200,0079578
-295,5560416 -707,5038742 188,3306982
-262,9573261 -706,4484348 185,6301799
-250,9434892 -735,2232178 187,9695131
-267,2344357 -698,4377723 186,2360932
-271,7706001 -708,588537 184,920183
-302,8371308 -723,0642877 189,4413822
-277,7248934 -738,4048524 187,6852613
-261,6789491 -704,6579537 185,5303773
-245,3911135 -754,1392406 183,5843933
-296,6666341 -717,6434663 188,9324668
-261,4068359 -769,8072051 197,156595
-280,9070474 -736,2368843 187,9196374
-301,9583629 -720,3025307 189,1310788
-261,1776921 -791,9691032 200,4909973
-294,8351757 -726,2534214 188,603578
-261,0328911 -791,4858499 197,6521545
-283,312355 -697,6667648 187,2238655
-265,3577983 -696,6554356 185,9847483
-301,7840829 -728,6177544 189,5786655
-270,2912238 -746,3950886 189,1617556
-253,1961647 -735,3888202 184,6281534
-273,1707141 -710,2330862 187,9555286
-261,9419418 -727,7171725 186,1237733
-256,4703687 -786,4283501 197,0200954
-270,0486605 -745,4566397 186,5243614
-294,9530543 -736,6723013 189,1880309
-294,8717201 -708,7600031 188,3805949
-272,4492782 -701,0179541 186,3623439
-271,7973707 -693,3987356 186,2380224
-266,154649 -804,8740208 204,1355939
-264,936841 -758,0730216 189,7776746
-249,9899765 -770,7251081 196,2213577
-272,269733 -710,9138086 182,9192955
